# .PCD v0.7 - Point Cloud Data file format
VERSION 0.7
FIELDS x y z intensity
SIZE 4 4 4 4
TYPE F F F F
COUNT 1 1 1 1
WIDTH 1501
HEIGHT 1
VIEWPOINT 0 0 0 1 0 0 0
POINTS 1501
DATA ascii
143.839 64.567963 -860.70172 0
144.38989 64.574593 -860.7901 0
144.964 64.591476 -861.01508 0
145.5482 64.612747 -861.29871 0
146.1398 64.637123 -861.62372 0
146.7449 64.667236 -862.02521 0
147.3723 64.70697 -862.55469 0
148.0137 64.752487 -863.16138 0
148.6481 64.794662 -863.72369 0
149.26241 64.827797 -864.16541 0
149.8636 64.855011 -864.52808 0
150.4595 64.879784 -864.85828 0
151.0551 64.904213 -865.1839 0
151.6539 64.929848 -865.5257 0
155.15849 65.042953 -867.03333 0
155.6965 65.042068 -867.02161 0
156.2339 65.040993 -867.00732 0
156.77879 65.042992 -867.03387 0
157.3342 65.049301 -867.1181 0
157.8997 65.059799 -867.258 0
158.4772 65.075081 -867.46167 0
159.06821 65.095802 -867.73798 0
159.6703 65.120956 -868.07318 0
160.2753 65.147079 -868.42151 0
160.8772 65.171768 -868.75049 0
161.4761 65.195084 -869.0614 0
162.0742 65.217918 -869.36572 0
162.6799 65.243637 -869.70862 0
163.3035 65.276367 -870.14502 0
163.9482 65.317284 -870.69019 0
164.60519 65.362823 -871.29718 0
165.2746 65.412933 -871.96527 0
165.9501 65.465179 -872.66168 0
166.5351 65.481453 -872.87872 0
167.10519 65.491814 -873.01672 0
167.66701 65.49884 -873.11047 0
168.2449 65.512077 -873.28699 0
169.4586 65.56076 -873.93591 0
170.0714 65.58712 -874.28717 0
179.87781 66.18969 -882.31958 0
88.333763 62.688919 -842.65057 0
88.805359 62.651321 -842.1452 0
89.320351 62.644611 -842.05487 0
89.852654 62.650028 -842.12793 0
90.385818 62.655998 -842.20813 0
90.919243 62.662079 -842.28967 0
91.454674 62.66946 -842.38898 0
91.992363 62.678291 -842.50781 0
92.531418 62.68795 -842.63757 0
93.069992 62.697182 -842.7616 0
93.606644 62.705009 -842.86682 0
94.140167 62.710678 -842.94312 0
94.673042 62.715851 -843.01257 0
95.210709 62.724121 -843.12378 0
95.756203 62.737431 -843.30267 0
96.306343 62.75362 -843.52032 0
96.853783 62.767891 -843.7121 0
97.394623 62.77774 -843.84448 0
97.930481 62.784309 -843.93268 0
98.46595 62.790539 -844.0166 0
99.003357 62.797951 -844.11609 0
99.541817 62.805939 -844.22357 0
100.0804 62.813919 -844.33087 0
100.6211 62.82312 -844.45453 0
101.1678 62.835991 -844.6275 0
101.7232 62.854099 -844.87091 0
102.2839 62.875259 -845.15527 0
102.8383 62.892342 -845.38489 0
103.3766 62.899471 -845.48077 0
103.8998 62.897411 -845.45313 0
104.4161 62.891151 -845.36902 0
104.9331 62.88541 -845.29169 0
105.455 62.882641 -845.25458 0
105.9832 62.883659 -845.26831 0
106.5191 62.889229 -845.34308 0
107.0629 62.899319 -845.47882 0
107.6116 62.912251 -845.65253 0
108.161 62.925381 -845.82898 0
108.7098 62.93811 -846.00012 0
109.2627 62.95306 -846.20117 0
109.8272 62.97451 -846.48938 0
110.4118 63.007172 -846.92828 0
111.0192 63.05257 -847.53882 0
111.6323 63.100689 -848.18549 0
112.22 63.134109 -848.63483 0
112.7759 63.149368 -848.8399 0
113.3077 63.151089 -848.86298 0
113.825 63.14473 -848.77753 0
114.3376 63.135849 -848.65808 0
114.8532 63.12867 -848.56152 0
115.3765 63.12579 -848.52283 0
115.9087 63.12775 -848.54932 0
116.448 63.133621 -848.62811 0
117.0105 63.151901 -848.87378 0
117.5475 63.156319 -848.93329 0
118.1062 63.172291 -849.14801 0
118.6695 63.190601 -849.3941 0
119.2399 63.212509 -849.68848 0
119.8226 63.2407 -850.06738 0
120.4189 63.275791 -850.53918 0
121.02 63.31311 -851.04077 0
121.6084 63.34346 -851.44873 0
122.1708 63.3601 -851.67242 0
122.7089 63.363998 -851.72491 0
123.233 63.360722 -851.68079 0
123.7565 63.357101 -851.63208 0
124.2881 63.357689 -851.64008 0
124.832 63.364498 -851.73163 0
125.3887 63.377708 -851.90918 0
125.952 63.394131 -852.12982 0
126.5211 63.413361 -852.38843 0
127.104 63.439281 -852.73682 0
127.7104 63.47665 -853.23907 0
130.16721 63.638451 -855.414 0
130.72 63.648151 -855.54431 0
131.2509 63.64719 -855.53137 0
131.7718 63.64138 -855.45343 0
132.29539 63.636929 -855.39349 0
132.8295 63.63752 -855.40149 0
133.3768 63.644428 -855.49438 0
133.93671 63.657269 -855.66699 0
134.5085 63.675659 -855.91412 0
135.0937 63.700211 -856.24408 0
135.69591 63.73254 -856.67859 0
136.3111 63.77071 -857.19171 0
136.9295 63.810051 -857.72058 0
137.5374 63.844231 -858.17999 0
138.1274 63.86985 -858.52441 0
138.70419 63.889229 -858.78491 0
139.27901 63.907501 -859.03052 0
139.8593 63.928162 -859.30823 0
140.4437 63.950581 -859.6095 0
141.02969 63.97348 -859.91742 0
141.6075 63.992531 -860.17352 0
142.1655 64.002548 -860.30798 0
142.70171 64.002693 -860.31012 0
143.22791 63.998329 -860.25128 0
143.76089 63.997082 -860.23462 0
144.3121 64.003899 -860.32617 0
144.8829 64.019333 -860.53363 0
145.4657 64.039902 -860.81018 0
146.05409 64.062813 -861.11823 0
146.65559 64.09127 -861.50067 0
147.282 64.130363 -862.02612 0
147.9352 64.180763 -862.70361 0
149.2184 64.270554 -863.91058 0
149.82561 64.300217 -864.30933 0
150.4239 64.325844 -864.65363 0
151.01781 64.349419 -864.97058 0
151.6097 64.371964 -865.27368 0
155.6969 64.502197 -867.02417 0
156.23689 64.502167 -867.02393 0
156.7753 64.501488 -867.01477 0
157.31821 64.50264 -867.03021 0
157.8714 64.508003 -867.10242 0
158.44 64.519577 -867.258 0
159.0253 64.53791 -867.50427 0
159.6243 64.5616 -867.82281 0
160.22639 64.586403 -868.15619 0
160.8237 64.609131 -868.46167 0
161.4175 64.630287 -868.74597 0
162.01241 64.651733 -869.03418 0
162.5878 64.665298 -869.21661 0
163.237 64.708008 -869.79071 0
163.8799 64.747971 -870.32788 0
165.8645 64.888107 -872.21161 0
166.4796 64.9161 -872.58783 0
167.04939 64.9263 -872.72491 0
167.6055 64.931129 -872.78992 0
168.1763 64.941612 -872.93079 0
168.77229 64.961739 -873.20142 0
169.3829 64.987312 -873.54498 0
169.99361 65.012787 -873.88757 0
179.78889 65.607643 -881.88342 0
180.5383 65.680443 -882.86188 0
87.753151 62.12458 -842.11578 0
88.27314 62.121368 -842.07233 0
88.766068 62.09927 -841.77258 0
89.29332 62.101292 -841.80011 0
89.832443 62.1115 -841.93842 0
90.359657 62.113411 -841.96442 0
90.89534 62.121078 -842.0683 0
91.432678 62.129791 -842.18628 0
91.970383 62.138641 -842.3064 0
92.508041 62.147369 -842.42468 0
93.045387 62.155788 -842.53888 0
93.582237 62.16378 -842.64722 0
94.117683 62.170761 -842.74182 0
94.652946 62.177551 -842.83368 0
95.191757 62.186562 -842.95587 0
95.736572 62.19939 -843.12982 0
96.285187 62.214531 -843.33508 0
96.831131 62.227791 -843.51477 0
97.370644 62.236778 -843.63678 0
97.904846 62.242321 -843.71179 0
98.43792 62.247082 -843.77631 0
98.972282 62.252609 -843.8512 0
99.507103 62.25835 -843.92902 0
100.0414 62.263741 -844.00208 0
100.5774 62.270081 -844.08807 0
101.1186 62.279591 -844.21698 0
101.6674 62.293598 -844.40692 0
102.2317 62.316971 -844.72369 0
102.7844 62.333069 -844.94189 0
103.3367 62.348782 -845.15479 0
103.8748 62.35577 -845.24957 0
104.4011 62.35564 -845.2478 0
104.922 62.352299 -845.20251 0
105.4428 62.348961 -845.15729 0
105.967 62.347641 -845.1394 0
106.4977 62.35009 -845.17273 0
107.0369 62.35751 -845.27332 0
107.5832 62.369019 -845.42932 0
108.1326 62.38213 -845.60687 0
108.6817 62.395 -845.78137 0
109.2323 62.408581 -845.96552 0
109.7899 62.425968 -846.20117 0
110.3619 62.451401 -846.5459 0
110.9561 62.48909 -847.05682 0
111.5586 62.531021 -847.62518 0
112.1744 62.580009 -848.28931 0
112.753 62.607891 -848.66718 0
113.3028 62.619629 -848.82642 0
113.8304 62.618999 -848.81781 0
114.3461 62.611832 -848.72058 0
114.8588 62.603142 -848.60278 0
115.3762 62.597061 -848.52039 0
115.9022 62.595699 -848.50189 0
116.4367 62.598919 -848.54547 0
116.9791 62.606319 -848.64587 0
117.5323 62.61945 -848.82379 0
118.0838 62.631512 -848.98743 0
118.6427 62.647381 -849.20251 0
119.2063 62.6656 -849.44952 0
119.7791 62.688419 -849.75879 0
120.366 62.71846 -850.16602 0
120.9673 62.755669 -850.67041 0
121.568 62.792252 -851.1662 0
122.1474 62.817532 -851.50891 0
122.6974 62.82761 -851.64551 0
123.2256 62.82642 -851.62939 0
123.7474 62.82201 -851.56958 0
124.2746 62.82037 -851.54742 0
124.8133 62.824558 -851.60419 0
125.3584 62.831848 -851.70313 0
125.9237 62.849209 -851.93829 0
126.4869 62.865421 -852.15802 0
127.06 62.886349 -852.44177 0
127.6519 62.91634 -852.84833 0
128.2675 62.957779 -853.40997 0
128.899 63.00658 -854.07147 0
129.52991 63.054729 -854.72418 0
130.13229 63.088669 -855.18433 0
130.7032 63.107109 -855.4342 0
131.24699 63.112381 -855.50562 0
131.7744 63.109741 -855.46979 0
132.2986 63.10561 -855.41388 0
132.8306 63.105209 -855.40851 0
133.377 63.11166 -855.49591 0
133.9386 63.125198 -855.6795 0
134.51289 63.144569 -855.94202 0
135.09801 63.168861 -856.27142 0
135.6949 63.198429 -856.67212 0
136.3017 63.23241 -857.13281 0
136.9146 63.268879 -857.62708 0
137.5248 63.30389 -858.10162 0
138.1219 63.332569 -858.49042 0
138.7043 63.354328 -858.78528 0
139.2803 63.373039 -859.039 0
139.8584 63.392509 -859.30292 0
140.4377 63.41238 -859.5722 0
141.0128 63.430229 -859.81409 0
141.5757 63.442509 -859.98071 0
142.12061 63.446609 -860.03632 0
142.64841 63.443081 -859.9884 0
143.1689 63.436371 -859.89752 0
143.69769 63.433338 -859.85638 0
144.24561 63.438759 -859.92987 0
144.81329 63.452789 -860.12012 0
145.3925 63.47176 -860.3772 0
145.97701 63.492882 -860.66351 0
146.5742 63.519371 -861.02258 0
147.19839 63.557289 -861.53662 0
147.8548 63.608829 -862.23523 0
149.78059 63.742691 -864.04968 0
150.38229 63.769611 -864.41461 0
150.97591 63.792919 -864.73059 0
156.2365 63.961941 -867.02173 0
156.77499 63.961269 -867.01257 0
157.30791 63.958382 -866.97339 0
157.8466 63.957821 -866.96588 0
158.4014 63.963791 -867.04681 0
158.9767 63.977951 -867.23871 0
159.5697 63.999161 -867.52618 0
160.17 64.023087 -867.85052 0
160.7657 64.045067 -868.1485 0
161.3576 64.065369 -868.42371 0
161.952 64.086502 -868.71021 0
162.5553 64.111038 -869.04272 0
163.17461 64.141701 -869.45837 0
163.8132 64.179718 -869.97369 0
165.1468 64.276917 -871.29132 0
165.8042 64.321388 -871.8941 0
166.42171 64.350189 -872.28448 0
166.9959 64.362053 -872.44531 0
167.54739 64.36515 -872.48743 0
168.11099 64.372864 -872.59167 0
168.6994 64.389977 -872.82391 0
169.3063 64.414047 -873.15009 0
169.9174 64.439537 -873.49573 0
171.7944 64.531464 -874.7417 0
172.4447 64.57093 -875.27667 0
173.11591 64.617958 -875.91418 0
179.0562 64.991783 -880.98138 0
179.7039 65.027588 -881.4668 0
180.4106 65.084442 -882.23749 0
85.674713 61.614239 -842.31012 0
86.183037 61.602558 -842.15039 0
86.715477 61.60815 -842.22681 0
87.188972 61.572041 -841.73322 0
87.689697 61.555489 -841.50702 0
88.210892 61.55341 -841.47852 0
88.738876 61.556061 -841.51477 0
89.269089 61.56023 -841.57172 0
89.800552 61.565201 -841.63959 0
90.334167 61.571579 -841.72681 0
90.871483 61.580391 -841.84729 0
91.410797 61.59045 -841.98492 0
91.949043 61.59967 -842.1109 0
92.485657 61.607719 -842.22089 0
93.021729 61.615299 -842.32458 0
93.558357 61.623169 -842.43213 0
94.095833 61.6315 -842.54608 0
94.634872 61.64077 -842.67273 0
95.176567 61.651649 -842.82141 0
95.720871 61.664089 -842.99152 0
96.26564 61.676689 -843.16382 0
96.807213 61.687119 -843.3064 0
97.343353 61.693989 -843.40033 0
97.875511 61.69828 -843.45898 0
98.406433 61.701752 -843.50641 0
98.938004 61.705589 -843.5589 0
99.469673 61.70945 -843.61157 0
100.0005 61.71278 -843.6571 0
100.5325 61.716721 -843.71112 0
101.0685 61.723129 -843.79871 0
101.6108 61.733231 -843.93683 0
102.162 61.74868 -844.14789 0
102.7232 61.769939 -844.4386 0
103.2879 61.793091 -844.75513 0
103.8436 61.81068 -844.99561 0
104.3849 61.819519 -845.11627 0
104.9139 61.821049 -845.13733 0
105.4364 61.81876 -845.10608 0
105.9583 61.81609 -845.06952 0
106.4844 61.815941 -845.0675 0
107.0184 61.82032 -845.12738 0
107.5602 61.829201 -845.24872 0
108.1068 61.840679 -845.40558 0
108.6549 61.852909 -845.57288 0
109.2045 61.865898 -845.75043 0
109.7588 61.881359 -845.96179 0
110.3229 61.90221 -846.24683 0
110.9042 61.932461 -846.6604 0
111.5059 61.973751 -847.22491 0
112.1155 62.01907 -847.8443 0
112.7124 62.056938 -848.36212 0
113.2841 62.08065 -848.68628 0
113.8292 62.0896 -848.80847 0
114.3549 62.087959 -848.78607 0
114.8699 62.080582 -848.68518 0
115.3841 62.072781 -848.57867 0
115.9041 62.068211 -848.51617 0
116.4325 62.0681 -848.51459 0
116.969 62.07233 -848.57239 0
117.5126 62.080292 -848.68127 0
118.0628 62.091629 -848.8363 0
118.6176 62.10524 -849.0224 0
119.1763 62.120838 -849.23572 0
119.7413 62.1395 -849.49072 0
120.3178 62.164001 -849.82562 0
120.9105 62.196548 -850.27063 0
121.5136 62.234169 -850.78491 0
122.1077 62.26688 -851.23212 0
122.6753 62.28587 -851.49182 0
123.2149 62.290531 -851.55542 0
123.7401 62.287868 -851.5191 0
124.2646 62.28492 -851.47882 0
124.7975 62.28619 -851.49622 0
125.3424 62.2934 -851.5946 0
125.8962 62.304932 -851.75232 0
126.4555 62.319118 -851.94623 0
127.0227 62.33704 -852.19122 0
127.6043 62.361858 -852.53052 0
128.2077 62.39706 -853.01178 0
128.83369 62.442951 -853.6391 0
129.4689 62.492889 -854.32178 0
130.1122 62.546341 -855.05261 0
130.679 62.562679 -855.27588 0
131.2386 62.57552 -855.45142 0
131.7766 62.57795 -855.48462 0
132.30499 62.575809 -855.45538 0
132.8369 62.575352 -855.4491 0
133.3829 62.58152 -855.53351 0
133.946 62.595631 -855.72638 0
134.52319 62.616211 -856.00769 0
135.1096 62.640839 -856.34442 0
135.70171 62.667969 -856.71527 0
136.2993 62.697399 -857.11761 0
136.9039 62.729801 -857.56049 0
137.5106 62.762878 -858.01282 0
138.1078 62.791409 -858.40277 0
138.6911 62.813431 -858.70392 0
139.26649 62.831711 -858.95367 0
141.5428 62.892189 -859.78052 0
142.0806 62.893188 -859.79431 0
142.604 62.887798 -859.72052 0
143.12241 62.880291 -859.61792 0
143.6499 62.876808 -859.57031 0
144.1964 62.881641 -859.63641 0
144.76089 62.894279 -859.80908 0
145.33549 62.91116 -860.03992 0
145.91451 62.92981 -860.29492 0
146.5061 62.953789 -860.62262 0
147.1246 62.989071 -861.10498 0
147.7775 63.038761 -861.78418 0
150.334 63.21085 -864.1369 0
150.92931 63.23476 -864.46368 0
151.515 63.254471 -864.73322 0
152.1033 63.27512 -865.01538 0
155.65739 63.40596 -866.8042 0
156.2251 63.417221 -866.95813 0
156.7724 63.420158 -866.99841 0
157.30209 63.416012 -866.94153 0
157.8287 63.410599 -866.86761 0
158.36749 63.410149 -866.86139 0
158.9285 63.41856 -866.97632 0
159.5125 63.43602 -867.21509 0
160.1104 63.458912 -867.52802 0
160.7079 63.481461 -867.8363 0
161.3013 63.50227 -868.12079 0
161.8972 63.52388 -868.41632 0
162.50121 63.548561 -868.75372 0
163.11819 63.578121 -869.15771 0
163.7551 63.615219 -869.66479 0
165.0869 63.711079 -870.97528 0
165.74409 63.755192 -871.57843 0
166.3622 63.784031 -871.9726 0
166.93719 63.796181 -872.13867 0
167.5184 63.810631 -872.3363 0
168.0354 63.80061 -872.19928 0
168.633 63.821171 -872.48029 0
169.23621 63.843712 -872.78851 0
169.84911 63.86974 -873.14429 0
170.50481 63.911678 -873.71771 0
171.0914 63.92749 -873.93378 0
171.7245 63.96056 -874.38593 0
172.3679 63.997211 -874.88702 0
173.0369 64.043114 -875.5144 0
179.6279 64.451218 -881.09363 0
180.3096 64.498756 -881.74353 0
85.627899 61.05619 -841.84991 0
86.104378 61.02224 -841.38177 0
86.613083 61.011398 -841.2323 0
87.130653 61.006901 -841.17023 0
87.654907 61.007099 -841.17297 0
88.186127 61.012119 -841.24219 0
88.71685 61.016739 -841.30591 0
89.246513 61.02058 -841.35883 0
89.776749 61.024761 -841.4165 0
90.309837 61.03083 -841.50018 0
90.847923 61.040169 -841.62903 0
91.396263 61.056259 -841.85089 0
91.915482 61.05283 -841.80359 0
92.465103 61.069519 -842.03369 0
93.000893 61.076931 -842.13593 0
93.537804 61.084999 -842.24701 0
94.077377 61.094711 -842.38092 0
94.620132 61.10635 -842.54138 0
95.164543 61.118938 -842.71503 0
95.707672 61.130562 -842.87518 0
96.247482 61.13995 -843.00482 0
96.78302 61.146542 -843.09558 0
97.330467 61.160542 -843.2887 0
97.849487 61.156639 -843.2348 0
98.368393 61.152691 -843.18042 0
98.901199 61.157391 -843.24518 0
99.429817 61.159451 -843.27362 0
99.958389 61.161469 -843.30151 0
100.4886 61.16444 -843.34241 0
101.0226 61.169689 -843.41492 0
101.5616 61.177921 -843.52832 0
102.1087 61.190941 -843.70782 0
102.6676 61.210781 -843.98138 0
103.2369 61.236629 -844.33783 0
103.8065 61.262409 -844.69318 0
104.3636 61.280621 -844.94427 0
104.9045 61.289131 -845.06171 0
105.4327 61.290192 -845.07617 0
105.9554 61.28801 -845.0462 0
106.4791 61.28648 -845.02509 0
107.0083 61.288109 -845.04749 0
107.5442 61.29353 -845.12238 0
108.0856 61.302021 -845.23938 0
108.6305 61.312401 -845.38263 0
109.1785 61.324459 -845.54883 0
109.731 61.338902 -845.74792 0
110.2905 61.357052 -845.99811 0
110.862 61.381699 -846.33801 0
111.4503 61.415409 -846.80292 0
112.0528 61.456581 -847.37042 0
112.6592 61.499439 -847.96149 0
113.2516 61.534351 -848.44281 0
113.8182 61.554939 -848.72662 0
114.3593 61.561642 -848.81897 0
114.8816 61.558201 -848.77161 0
115.3964 61.550789 -848.66937 0
115.9125 61.544102 -848.57721 0
116.4347 61.54076 -848.53113 0
116.9643 61.541279 -848.53833 0
117.5007 61.545399 -848.59521 0
118.0448 61.553501 -848.70679 0
118.5954 61.56488 -848.86371 0
119.1507 61.578629 -849.05328 0
119.7106 61.594589 -849.27332 0
120.2783 61.61441 -849.54657 0
120.8592 61.64077 -849.9101 0
121.4485 61.671188 -850.32959 0
122.0552 61.71011 -850.86621 0
122.641 61.738201 -851.25348 0
123.1979 61.75156 -851.43768 0
123.7317 61.7533 -851.46167 0
124.2563 61.750439 -851.42218 0
124.7841 61.749161 -851.40472 0
125.3222 61.752972 -851.45709 0
125.884 61.768391 -851.66968 0
126.4274 61.774731 -851.7572 0
126.9916 61.7911 -851.98291 0
127.5677 61.81308 -852.28589 0
128.1631 61.844219 -852.71527 0
128.78259 61.886662 -853.30048 0
129.4185 61.936619 -853.98938 0
130.0468 61.982559 -854.6228 0
130.6494 62.015888 -855.08228 0
131.2233 62.035381 -855.35107 0
131.7742 62.043919 -855.46881 0
132.3114 62.045952 -855.49683 0
132.8481 62.04771 -855.52112 0
133.39571 62.054569 -855.61572 0
133.959 62.06863 -855.80951 0
134.53661 62.08918 -856.09277 0
135.123 62.11359 -856.42938 0
135.71159 62.138851 -856.77771 0
136.3017 62.164589 -857.13263 0
136.89729 62.192589 -857.51868 0
137.4901 62.21917 -857.88507 0
138.0862 62.24699 -858.26868 0
138.666 62.267262 -858.54822 0
139.2392 62.28447 -858.78558 0
141.5132 62.343601 -859.60083 0
142.0508 62.344521 -859.61353 0
142.5741 62.339241 -859.54059 0
143.09331 62.33215 -859.44287 0
143.6209 62.328819 -859.39697 0
144.1653 62.33276 -859.45129 0
144.7253 62.343349 -859.59741 0
145.2934 62.35738 -859.79089 0
145.8662 62.37328 -860.01007 0
146.4451 62.391689 -860.26392 0
147.0607 62.42556 -860.73102 0
147.7047 62.471169 -861.3598 0
148.3746 62.527359 -862.13458 0
149.03481 62.57909 -862.84778 0
149.66859 62.6194 -863.40363 0
150.2803 62.650211 -863.82843 0
150.88 62.675789 -864.18103 0
151.4698 62.697121 -864.47522 0
152.0607 62.718712 -864.77289 0
156.1989 62.866661 -866.81281 0
156.7599 62.87513 -866.92963 0
157.29359 62.872581 -866.89441 0
157.8138 62.8647 -866.78589 0
158.3398 62.859161 -866.70941 0
158.8867 62.861961 -866.74799 0
159.45979 62.875069 -866.92877 0
160.0531 62.896019 -867.21759 0
160.6524 62.919159 -867.53662 0
161.2494 62.94125 -867.84131 0
161.8481 62.96386 -868.15302 0
162.453 62.988739 -868.49597 0
163.0683 63.017429 -868.89172 0
163.7016 63.052891 -869.38062 0
165.0258 63.145168 -870.65302 0
165.6815 63.188412 -871.24908 0
166.29961 63.217079 -871.64447 0
166.8759 63.229698 -871.81842 0
167.4319 63.234589 -871.88593 0
167.9933 63.241489 -871.98108 0
168.5574 63.24934 -872.08929 0
169.17641 63.277672 -872.47992 0
169.7905 63.30402 -872.84308 0
170.4119 63.332909 -873.24158 0
171.0269 63.35923 -873.60449 0
171.6683 63.395149 -874.09967 0
180.2282 63.920658 -881.34552 0
181.03329 64.011223 -882.59412 0
85.159332 60.57151 -842.4021 0
85.586662 60.502659 -841.44452 0
86.050751 60.460461 -840.85773 0
86.565987 60.45451 -840.77478 0
87.095337 60.458408 -840.82922 0
87.628777 60.465099 -840.92218 0
88.162697 60.472038 -841.01868 0
88.694206 60.477261 -841.09119 0
89.223846 60.481129 -841.14508 0
89.753777 60.485168 -841.20129 0
90.286629 60.491112 -841.28387 0
90.824783 60.500511 -841.41467 0
91.366562 60.512211 -841.57727 0
91.907722 60.523369 -841.73248 0
92.437393 60.526871 -841.78131 0
92.983017 60.540741 -841.97412 0
93.521133 60.549568 -842.09692 0
94.062714 60.560539 -842.24951 0
94.60775 60.573601 -842.43121 0
95.152771 60.58651 -842.61072 0
95.693451 60.596531 -842.75012 0
96.228607 60.602951 -842.83942 0
96.759201 60.606461 -842.88812 0
97.28701 60.608189 -842.91217 0
97.813309 60.608959 -842.92297 0
98.338387 60.608978 -842.92322 0
98.863319 60.608898 -842.92212 0
99.389427 60.60955 -842.93121 0
99.927353 60.617352 -843.03961 0
100.4457 60.613281 -842.98297 0
100.9835 60.620911 -843.08911 0
101.5229 60.629391 -843.20709 0
102.0684 60.641449 -843.37482 0
102.6236 60.6591 -843.62018 0
103.1906 60.683521 -843.95978 0
103.7645 60.711689 -844.35168 0
104.3337 60.736889 -844.70209 0
104.888 60.753201 -844.92902 0
105.4262 60.760021 -845.0238 0
105.9538 60.76075 -845.034 0
106.4779 60.759449 -845.01593 0
107.0038 60.759171 -845.01202 0
107.5338 60.76125 -845.04089 0
108.069 60.76619 -845.10962 0
108.6093 60.773972 -845.21777 0
109.1547 60.784512 -845.36438 0
109.7054 60.797871 -845.55017 0
110.2702 60.81892 -845.8429 0
110.8255 60.834499 -846.05957 0
111.4023 60.861679 -846.43768 0
111.9941 60.896778 -846.92578 0
112.6062 60.942558 -847.5625 0
113.2064 60.981491 -848.10388 0
113.7934 61.012989 -848.54199 0
114.3524 61.02919 -848.76727 0
114.8863 61.031971 -848.80603 0
115.4066 61.027538 -848.74432 0
115.9227 61.020889 -848.65192 0
116.4408 61.015381 -848.57532 0
116.9636 61.012371 -848.53339 0
117.4922 61.012428 -848.53418 0
118.0294 61.016891 -848.59631 0
118.5792 61.027802 -848.74799 0
119.1274 61.0378 -848.88708 0
119.6846 61.052311 -849.08881 0
120.2466 61.069111 -849.32257 0
120.8165 61.08979 -849.61011 0
121.3988 61.11647 -849.9812 0
121.9959 61.150398 -850.45313 0
122.5933 61.184189 -850.92291 0
123.1692 61.206959 -851.23962 0
123.7173 61.215809 -851.36267 0
124.2472 61.215591 -851.35968 0
124.7731 61.213459 -851.33002 0
125.3061 61.214771 -851.34821 0
125.8506 61.221661 -851.44397 0
126.4056 61.23357 -851.60968 0
126.968 61.249001 -851.82428 0
127.5424 61.270031 -852.11682 0
128.1339 61.299091 -852.52087 0
128.7484 61.338829 -853.07361 0
129.3811 61.38694 -853.74268 0
130.0094 61.432529 -854.37689 0
130.61501 61.467091 -854.85742 0
131.19679 61.490189 -855.17859 0
131.7592 61.504059 -855.37158 0
132.3085 61.51173 -855.47827 0
132.855 61.518051 -855.5661 0
133.40759 61.5271 -855.69202 0
133.9706 61.540871 -855.88348 0
134.5451 61.559799 -856.14673 0
135.1286 61.582699 -856.46527 0
135.7142 61.606331 -856.79388 0
136.299 61.629452 -857.11542 0
136.8866 61.653641 -857.4519 0
137.4944 61.686699 -857.91168 0
138.05791 61.699699 -858.09241 0
138.6321 61.717369 -858.33832 0
139.20219 61.73312 -858.55719 0
139.774 61.749439 -858.78418 0
140.3501 61.76757 -859.03638 0
140.9241 61.784641 -859.27368 0
141.4843 61.79554 -859.42542 0
142.0266 61.798561 -859.46741 0
142.5544 61.795269 -859.42157 0
143.0779 61.79015 -859.35052 0
143.6075 61.787701 -859.31628 0
144.14909 61.79044 -859.35461 0
144.7021 61.797989 -859.45941 0
145.26151 61.808231 -859.60181 0
145.8266 61.820782 -859.77643 0
146.40379 61.838402 -860.02148 0
147.0045 61.865749 -860.40179 0
147.6373 61.906361 -860.96661 0
148.35001 61.980061 -861.99152 0
148.9655 62.01276 -862.44641 0
149.6066 62.05584 -863.04547 0
150.2565 62.10228 -863.69128 0
150.82671 62.115528 -863.87561 0
151.42261 62.139259 -864.20569 0
152.0188 62.162922 -864.53473 0
155.56689 62.289848 -866.29999 0
156.1619 62.311958 -866.60748 0
156.73441 62.324951 -866.78809 0
157.2742 62.324902 -866.78748 0
157.793 62.316582 -866.67181 0
158.3116 62.308201 -866.55518 0
158.849 62.30727 -866.54218 0
159.4135 62.31694 -866.67682 0
160.0011 62.33556 -866.93573 0
160.5992 62.358101 -867.24933 0
161.1909 62.378021 -867.52618 0
161.80029 62.40464 -867.89648 0
162.4061 62.42971 -868.24512 0
163.01981 62.457642 -868.63348 0
164.30569 62.535179 -869.71198 0
164.9646 62.579639 -870.33032 0
165.6181 62.621731 -870.91571 0
166.2359 62.650101 -871.31018 0
166.8127 62.66293 -871.48859 0
167.371 62.668701 -871.56891 0
167.93629 62.677059 -871.68518 0
168.52049 62.69241 -871.89862 0
169.1235 62.714611 -872.20752 0
169.7388 62.741211 -872.57727 0
170.36211 62.770599 -872.98608 0
170.9892 62.801239 -873.41217 0
171.6153 62.831249 -873.82959 0
172.2421 62.86137 -874.24847 0
180.14819 63.34354 -880.95422 0
180.9304 63.425381 -882.09253 0
85.525414 59.935589 -840.84222 0
86.009193 59.907749 -840.4516 0
86.534409 59.908932 -840.46808 0
87.067993 59.915852 -840.56519 0
87.603554 59.924042 -840.68011 0
88.138199 59.931511 -840.78497 0
88.670731 59.937469 -840.86859 0
89.201576 59.942219 -840.93518 0
89.732407 59.946911 -841.00098 0
90.265343 59.95293 -841.08551 0
90.80294 59.961971 -841.21228 0
91.344727 59.97366 -841.37628 0
91.887207 59.985668 -841.54468 0
92.428009 59.996441 -841.69592 0
92.966728 60.005749 -841.82648 0
93.506142 60.015411 -841.96198 0
94.049026 60.02718 -842.12708 0
94.594681 60.040562 -842.31482 0
95.13858 60.052689 -842.48499 0
95.676582 60.060989 -842.6015 0
96.208481 60.065392 -842.66309 0
96.735611 60.06678 -842.68268 0
97.259621 60.066219 -842.67493 0
97.781883 60.06461 -842.65222 0
98.303383 60.062531 -842.62311 0
98.82621 60.061291 -842.60571 0
99.352127 60.061939 -842.61481 0
99.881508 60.064651 -842.65277 0
100.4149 60.06974 -842.72418 0
100.9523 60.077179 -842.82861 0
101.4931 60.086521 -842.95959 0
102.0381 60.09824 -843.12408 0
102.5897 60.113739 -843.34149 0
103.151 60.134682 -843.63531 0
103.7216 60.160881 -844.00281 0
104.2954 60.18861 -844.39178 0
104.8616 60.21172 -844.716 0
105.4124 60.225811 -844.9137 0
105.9492 60.231739 -844.99689 0
106.4772 60.232689 -845.01031 0
107.0024 60.232029 -845.00092 0
107.5283 60.2318 -844.99768 0
108.0581 60.233711 -845.02448 0
108.5936 60.23877 -845.09552 0
109.1355 60.24733 -845.21558 0
109.6833 60.259048 -845.38013 0
110.2357 60.27314 -845.5777 0
110.7916 60.289028 -845.8006 0
111.3611 60.31213 -846.12457 0
111.9422 60.34127 -846.53363 0
112.5413 60.379799 -847.0741 0
113.1522 60.424271 -847.69788 0
113.7543 60.463638 -848.25031 0
114.3306 60.488991 -848.60577 0
114.8791 60.49947 -848.75293 0
115.4094 60.500309 -848.76477 0
115.93 60.496071 -848.70532 0
116.4471 60.490089 -848.62128 0
116.9649 60.484501 -848.54303 0
117.4866 60.480949 -848.4931 0
118.0165 60.481701 -848.5036 0
118.5564 60.487469 -848.58447 0
119.1006 60.495441 -848.69641 0
119.6605 60.51123 -848.91791 0
120.2194 60.52639 -849.13062 0
120.7816 60.54306 -849.36438 0
121.3524 60.563889 -849.65668 0
121.9385 60.592152 -850.05322 0
122.5367 60.626148 -850.53009 0
123.128 60.656422 -850.95477 0
123.6947 60.674389 -851.20691 0
124.2366 60.68013 -851.28741 0
124.7662 60.67976 -851.28223 0
125.297 60.680031 -851.28601 0
125.8382 60.685299 -851.35992 0
126.3907 60.69598 -851.50983 0
126.954 60.71172 -851.73059 0
127.5296 60.73315 -852.03119 0
128.1203 60.761589 -852.43018 0
128.73061 60.799049 -852.95569 0
129.35741 60.84399 -853.58618 0
129.97971 60.88641 -854.18127 0
130.5806 60.91853 -854.6319 0
131.1613 60.941002 -854.9472 0
131.72881 60.957169 -855.17401 0
132.2881 60.969429 -855.34601 0
132.8455 60.980721 -855.50452 0
133.4044 60.99263 -855.67157 0
133.9673 61.006241 -855.86249 0
134.537 61.022831 -856.09521 0
135.10361 61.037891 -856.30652 0
135.69679 61.064819 -856.68433 0
136.27831 61.086281 -856.98541 0
136.86121 61.108181 -857.29248 0
137.4442 61.130001 -857.59857 0
138.01691 61.14706 -857.83801 0
138.5938 61.16581 -858.10101 0
139.16119 61.180302 -858.30432 0
139.73109 61.195728 -858.52081 0
140.3071 61.213718 -858.77332 0
140.8848 61.2323 -859.03387 0
141.4558 61.24786 -859.2522 0
142.0014 61.25235 -859.31519 0
142.5372 61.252571 -859.3183 0
143.0688 61.250999 -859.29633 0
143.6028 61.250462 -859.28857 0
144.142 61.25214 -859.31232 0
144.68649 61.25605 -859.36713 0
145.2357 61.26189 -859.44897 0
145.7923 61.270851 -859.57483 0
146.36301 61.285622 -859.78192 0
146.9547 61.309021 -860.11023 0
147.5759 61.344559 -860.60883 0
148.2305 61.393639 -861.29742 0
148.8998 61.448429 -862.06598 0
149.54671 61.493641 -862.70032 0
150.1667 61.527481 -863.17499 0
150.77901 61.557961 -863.60248 0
151.3699 61.579498 -863.90479 0
151.96941 61.604382 -864.25378 0
155.5266 61.734249 -866.07568 0
156.12379 61.757069 -866.39587 0
156.70219 61.772331 -866.60999 0
157.24631 61.77404 -866.63391 0
157.7654 61.76593 -866.52008 0
158.2807 61.756371 -866.38623 0
158.81329 61.753639 -866.34778 0
159.3725 61.761219 -866.45422 0
159.95461 61.777569 -866.68347 0
160.54849 61.798389 -866.97559 0
161.14729 61.820911 -867.2915 0
161.7496 61.844639 -867.62451 0
162.3558 61.869709 -867.97607 0
162.9687 61.897148 -868.36108 0
163.597 61.930248 -868.8255 0
164.2532 61.973621 -869.43402 0
164.90939 62.016739 -870.03882 0
165.58771 62.067829 -870.75562 0
166.1772 62.085442 -871.00269 0
166.75301 62.097832 -871.17651 0
167.3116 62.10376 -871.2597 0
167.8793 62.11301 -871.38953 0
168.467 62.12957 -871.62183 0
169.07159 62.152222 -871.93951 0
169.6879 62.17905 -872.31598 0
170.3107 62.208069 -872.72308 0
170.93469 62.237339 -873.13361 0
171.5562 62.265511 -873.52887 0
172.17709 62.293289 -873.91858 0
172.80791 62.324459 -874.3559 0
178.76961 62.696209 -879.57111 0
179.4052 62.726891 -880.00159 0
180.0612 62.764481 -880.52899 0
180.8119 62.834751 -881.51477 0
83.923813 59.390369 -840.53851 0
84.996292 59.408089 -840.78931 0
85.460876 59.367008 -840.20782 0
85.975227 59.36079 -840.11981 0
86.508247 59.367451 -840.21411 0
87.043716 59.37571 -840.33087 0
87.57946 59.384048 -840.44897 0
88.114166 59.39159 -840.55573 0
88.647873 59.398369 -840.65167 0
89.180717 59.40451 -840.73853 0
89.713287 59.410389 -840.82172 0
90.246696 59.416759 -840.91193 0
90.783386 59.425179 -841.03113 0
91.324287 59.43626 -841.18799 0
91.867416 59.448662 -841.3634 0
92.409897 59.460499 -841.53101 0
92.950119 59.47076 -841.67609 0
93.480949 59.474918 -841.73511 0
94.032661 59.49226 -841.98053 0
94.578247 59.50555 -842.16852 0
95.121834 59.517429 -842.33667 0
95.659172 59.525299 -842.44812 0
96.189728 59.528889 -842.4989 0
96.714317 59.52877 -842.49731 0
97.234543 59.52597 -842.45758 0
97.752434 59.52179 -842.39838 0
98.270844 59.51796 -842.34418 0
98.793083 59.516479 -842.32318 0
99.320679 59.51823 -842.34802 0
99.852913 59.522709 -842.4115 0
100.3889 59.529388 -842.50598 0
100.9279 59.537769 -842.62451 0
101.4692 59.547401 -842.76093 0
102.0134 59.55864 -842.91998 0
102.5622 59.57246 -843.11548 0
103.1179 59.590099 -843.36511 0
103.6824 59.61261 -843.68378 0
104.2545 59.639259 -844.06097 0
104.841 59.673809 -844.54999 0
105.39 59.686779 -844.73352 0
105.9383 59.699299 -844.91058 0
106.4743 59.704731 -844.98749 0
107.0026 59.70578 -845.00238 0
107.5275 59.70499 -844.99121 0
108.0537 59.704941 -844.99048 0
108.585 59.707619 -845.02838 0
109.1229 59.713982 -845.11841 0
109.6671 59.72361 -845.25482 0
110.2153 59.735401 -845.42157 0
110.7679 59.74939 -845.61963 0
111.3128 59.759151 -845.75769 0
111.8988 59.790798 -846.20569 0
112.4885 59.82407 -846.67651 0
113.0954 59.866138 -847.27197 0
113.7046 59.909069 -847.87952 0
114.2951 59.941799 -848.34271 0
114.8592 59.960388 -848.60577 0
115.4021 59.967831 -848.71118 0
115.9306 59.967758 -848.71008 0
116.4504 59.963181 -848.64532 0
116.9661 59.956589 -848.552 0
117.4828 59.950531 -848.46631 0
118.0066 59.948139 -848.4325 0
118.5406 59.95092 -848.4718 0
119.085 59.9589 -848.58478 0
119.6377 59.971001 -848.75598 0
120.1938 59.984661 -848.94928 0
120.7509 59.998749 -849.14868 0
121.3136 60.015461 -849.38519 0
121.8889 60.038212 -849.70721 0
122.4957 60.07621 -850.24512 0
123.0794 60.102619 -850.61871 0
123.6656 60.130058 -851.00708 0
124.2261 60.144741 -851.21503 0
124.7652 60.149021 -851.27551 0
125.2974 60.14999 -851.28918 0
125.8366 60.154259 -851.34967 0
126.3883 60.164398 -851.49323 0
126.953 60.180698 -851.72382 0
127.5308 60.203011 -852.03961 0
128.1217 60.231289 -852.43982 0
128.72771 60.266399 -852.93658 0
129.34641 60.307152 -853.51349 0
129.9593 60.344898 -854.04773 0
130.55209 60.373001 -854.44537 0
131.1254 60.391911 -854.71301 0
131.6837 60.403831 -854.88171 0
132.25 60.41925 -855.09998 0
132.81239 60.43277 -855.29132 0
133.375 60.44632 -855.48297 0
133.938 60.459919 -855.67548 0
134.5041 60.474781 -855.88593 0
135.0762 60.492241 -856.13287 0
135.6537 60.511959 -856.41211 0
136.2323 60.532009 -856.69568 0
136.81281 60.552761 -856.9895 0
137.395 60.574089 -857.29132 0
137.9753 60.59441 -857.57898 0
138.53931 60.60746 -857.76367 0
139.1183 60.626942 -858.03943 0
139.6881 60.642281 -858.25647 0
140.2644 60.66032 -858.51178 0
140.84509 60.680099 -858.79169 0
141.4182 60.696468 -859.02338 0
141.9781 60.707119 -859.17401 0
142.5206 60.710201 -859.21777 0
143.0616 60.712688 -859.25293 0
143.6008 60.714378 -859.27692 0
144.13811 60.71521 -859.28857 0
144.67419 60.715569 -859.2937 0
145.213 60.717072 -859.31488 0
145.7612 60.722462 -859.39117 0
146.3252 60.734371 -859.55981 0
146.9093 60.75449 -859.8446 0
147.5199 60.7854 -860.28198 0
148.16769 60.831348 -860.93231 0
148.8766 60.901989 -861.93201 0
149.49229 60.934078 -862.38623 0
150.1153 60.968929 -862.87952 0
150.71899 60.99575 -863.25897 0
151.3013 61.013721 -863.51331 0
155.49561 61.18256 -865.90289 0
156.09241 61.205101 -866.22192 0
156.6881 61.227039 -866.53241 0
157.2178 61.223091 -866.47662 0
157.7359 61.214729 -866.35822 0
158.2395 61.200771 -866.16058 0
158.7775 61.20018 -866.15228 0
159.33279 61.206261 -866.23828 0
159.9095 61.22047 -866.43951 0
160.4982 61.23914 -866.70361 0
161.09419 61.26049 -867.00592 0
161.696 61.283909 -867.33728 0
162.30231 61.30883 -867.69012 0
162.9156 61.336239 -868.07788 0
163.54449 61.369339 -868.54639 0
165.5112 61.497051 -870.35382 0
166.1096 61.517879 -870.64862 0
166.69881 61.535191 -870.89362 0
167.25661 61.54081 -870.97308 0
167.8255 61.550461 -871.1098 0
168.4153 61.567711 -871.35388 0
169.0206 61.59053 -871.67682 0
169.63651 61.617001 -872.05139 0
170.25591 61.644581 -872.44177 0
170.8735 61.671379 -872.82098 0
171.4902 61.69762 -873.19238 0
172.1107 61.72509 -873.5813 0
172.7404 61.75568 -874.0141 0
179.32249 62.15007 -879.59583 0
179.94881 62.177139 -879.979 0
180.6826 62.2411 -880.88422 0
83.857422 58.82024 -839.87372 0
84.39856 58.832779 -840.05267 0
84.912216 58.82613 -839.9577 0
85.423286 58.81776 -839.83832 0
85.950821 58.82077 -839.88129 0
86.484863 58.828171 -839.98688 0
87.020493 58.836559 -840.10669 0
87.561707 58.848598 -840.27863 0
88.08062 58.8456 -840.23572 0
88.625938 58.860168 -840.44379 0
89.160843 58.86768 -840.55109 0
89.695412 58.874901 -840.65417 0
90.229797 58.88192 -840.75439 0
90.765823 58.889912 -840.86853 0
91.305389 58.900101 -841.01392 0
91.847832 58.91201 -841.18402 0
92.390297 58.923809 -841.35248 0
92.93026 58.93388 -841.49628 0
93.468811 58.942959 -841.62592 0
94.010422 58.953838 -841.78131 0
94.556969 58.96769 -841.979 0
95.10347 58.98135 -842.17407 0
95.643913 58.991131 -842.31378 0
96.175491 58.995369 -842.37421 0
96.698349 58.994228 -842.35797 0
97.214844 58.98925 -842.28693 0
97.72879 58.982792 -842.19458 0
98.244614 58.97752 -842.11938 0
98.766479 58.97591 -842.09637 0
99.295464 58.97855 -842.13422 0
99.829697 58.984268 -842.21582 0
100.3673 58.991879 -842.3244 0
100.907 59.000679 -842.45001 0
101.4481 59.010159 -842.58539 0
101.9913 59.020809 -842.73749 0
102.5273 59.027161 -842.82819 0
103.0902 59.048901 -843.13867 0
103.649 59.068062 -843.41217 0
104.2159 59.09161 -843.74847 0
104.7884 59.11805 -844.12592 0
105.3585 59.142921 -844.48102 0
105.9184 59.161861 -844.75153 0
106.4656 59.173561 -844.91858 0
107.0012 59.17868 -844.99158 0
107.5285 59.179211 -844.99933 0
108.0533 59.178329 -844.98669 0
108.5811 59.179169 -844.99872 0
109.1154 59.18346 -845.05988 0
109.6556 59.190948 -845.16687 0
110.1998 59.200451 -845.30261 0
110.7473 59.211681 -845.46289 0
111.3005 59.22578 -845.66418 0
111.8634 59.244919 -845.93738 0
112.4428 59.272598 -846.3327 0
113.0408 59.309761 -846.8634 0
113.6485 59.35162 -847.46112 0
114.248 59.38887 -847.99298 0
114.8268 59.415009 -848.36609 0
115.3839 59.429779 -848.57703 0
115.923 59.435169 -848.65411 0
116.449 59.43383 -848.63489 0
116.9665 59.428211 -848.55463 0
117.4815 59.421329 -848.45642 0
118.001 59.416821 -848.39203 0
118.5295 59.416828 -848.39209 0
119.0689 59.422272 -848.46979 0
119.6169 59.43195 -848.60797 0
120.1688 59.443481 -848.77258 0
120.7222 59.455669 -848.94672 0
121.2801 59.46994 -849.15051 0
121.8478 59.48885 -849.42047 0
122.4304 59.514858 -849.79187 0
123.0299 59.548851 -850.27722 0
123.6325 59.584011 -850.7793 0
124.2145 59.60899 -851.13593 0
124.7685 59.620369 -851.29852 0
125.3069 59.624222 -851.35339 0
125.8469 59.628799 -851.41882 0
126.3987 59.63892 -851.56329 0
126.9648 59.655689 -851.80267 0
127.5432 59.67807 -852.12231 0
128.13251 59.705318 -852.51141 0
128.733 59.737591 -852.97223 0
129.34261 59.773762 -853.48859 0
129.946 59.80677 -853.96002 0
130.5303 59.83078 -854.3028 0
131.0941 59.845249 -854.5094 0
131.64771 59.85495 -854.64783 0
132.2059 59.86665 -854.81488 0
132.75861 59.875751 -854.94489 0
133.3192 59.888371 -855.12512 0
133.881 59.901428 -855.31152 0
134.4456 59.915569 -855.51349 0
135.0139 59.931309 -855.73822 0
135.58681 59.948929 -855.98981 0
136.1478 59.961151 -856.16443 0
136.73959 59.986839 -856.53113 0
137.3224 60.008381 -856.83862 0
137.9084 60.031109 -857.16333 0
138.49249 60.05286 -857.47382 0
139.06149 60.067928 -857.68903 0
139.6452 60.089218 -857.99298 0
140.2244 60.10841 -858.26703 0
140.8085 60.129551 -858.56879 0
141.3871 60.14817 -858.83459 0
141.95151 60.160671 -859.01312 0
142.5056 60.16869 -859.12769 0
143.0549 60.174629 -859.21252 0
143.5984 60.178131 -859.26251 0
144.1335 60.178082 -859.26178 0
144.662 60.17527 -859.22162 0
145.1911 60.172699 -859.185 0
145.7303 60.174381 -859.20892 0
146.28729 60.18335 -859.33698 0
146.86459 60.200581 -859.58313 0
147.46761 60.22818 -859.97717 0
148.1093 60.271309 -860.59302 0
148.7812 60.326401 -861.37958 0
149.4431 60.377029 -862.10242 0
150.07179 60.413952 -862.62958 0
150.6774 60.441349 -863.02087 0
151.27341 60.464691 -863.35419 0
151.8658 60.486462 -863.66498 0
155.46609 60.631691 -865.73859 0
156.0627 60.65398 -866.05701 0
156.64149 60.66922 -866.27472 0
157.2104 60.680531 -866.43597 0
157.72749 60.671848 -866.31207 0
158.2444 60.663139 -866.18768 0
158.7408 60.64666 -865.95239 0
159.2917 60.65102 -866.01471 0
159.8634 60.663261 -866.18951 0
160.4469 60.67989 -866.42688 0
161.0401 60.700031 -866.71448 0
161.6418 60.72327 -867.04633 0
162.23869 60.74453 -867.34991 0
162.8624 60.775688 -867.7948 0
163.49091 60.80838 -868.2616 0
164.1369 60.847359 -868.81818 0
165.4628 60.93708 -870.09918 0
166.11481 60.97747 -870.6759 0
166.63139 60.96801 -870.54102 0
167.2028 60.978661 -870.69287 0
167.7722 60.98848 -870.83313 0
168.3633 61.006142 -871.08533 0
168.96831 61.028679 -871.4071 0
169.6114 61.064758 -871.92242 0
170.1958 61.07959 -872.13397 0
170.8071 61.10392 -872.48151 0
171.4207 61.128929 -872.83862 0
172.08121 61.17046 -873.43158 0
172.6777 61.18906 -873.69708 0
178.6123 61.546249 -878.79742 0
179.24719 61.576309 -879.22662 0
179.8862 61.607578 -879.6731 0
180.57159 61.65451 -880.3432 0
83.300911 58.27375 -839.53748 0
83.808189 58.262859 -839.38062 0
84.337143 58.267071 -839.44128 0
84.86721 58.272011 -839.51239 0
85.396469 58.276329 -839.57458 0
85.928497 58.282478 -839.66321 0
86.462357 58.28978 -839.76837 0
86.997589 58.297909 -839.88562 0
87.533287 58.306259 -840.00592 0
88.068703 58.31432 -840.12189 0
88.6045 58.322552 -840.24048 0
89.141197 58.331261 -840.36603 0
89.677673 58.339729 -840.48798 0
90.213333 58.347561 -840.60089 0
90.749046 58.35535 -840.71307 0
91.286827 58.364368 -840.84302 0
91.827293 58.374981 -840.99591 0
92.367821 58.385521 -841.14783 0
92.905838 58.394371 -841.27509 0
93.442528 58.402279 -841.38922 0
93.98304 58.412479 -841.53607 0
94.531517 58.42749 -841.75238 0
95.083763 58.444649 -841.99957 0
95.630379 58.458179 -842.19458 0
96.165413 58.464531 -842.28589 0
96.688026 58.463291 -842.26819 0
97.202019 58.456879 -842.17578 0
97.71312 58.448811 -842.05957 0
98.2267 58.44231 -841.96582 0
98.747108 58.439911 -841.93127 0
99.275322 58.442131 -841.96332 0
99.80928 58.447701 -842.04352 0
100.3469 58.45533 -842.15338 0
100.8868 58.46423 -842.28168 0
101.4279 58.473709 -842.41821 0
101.9706 58.483978 -842.56622 0
102.5163 58.495892 -842.73767 0
103.0659 58.509899 -842.93958 0
103.6204 58.52652 -843.17908 0
104.1814 58.546619 -843.46869 0
104.7492 58.570339 -843.81042 0
105.32 58.595501 -844.17291 0
105.8878 58.61874 -844.50763 0
106.4474 58.637199 -844.77362 0
106.9939 58.648319 -844.93378 0
107.5272 58.652168 -844.98932 0
108.053 58.651829 -844.98438 0
108.5786 58.65147 -844.97919 0
109.1093 58.65379 -845.0127 0
109.6454 58.659 -845.08759 0
110.185 58.666061 -845.18927 0
110.7278 58.67469 -845.31378 0
111.2758 58.686001 -845.47668 0
111.8373 58.704281 -845.74011 0
112.403 58.724621 -846.03308 0
112.9903 58.755981 -846.4848 0
113.5898 58.793369 -847.02362 0
114.1913 58.831421 -847.57172 0
114.7824 58.863819 -848.03851 0
115.3553 58.8866 -848.36658 0
115.9079 58.898891 -848.5437 0
116.4436 58.902489 -848.59558 0
116.9666 58.89967 -848.55487 0
117.4828 58.89349 -848.466 0
117.9998 58.88773 -848.383 0
118.5232 58.88522 -848.3468 0
119.0567 58.88773 -848.383 0
119.5988 58.894451 -848.47968 0
120.1453 58.90329 -848.60718 0
120.6955 58.913849 -848.75922 0
121.2512 58.926929 -848.94769 0
121.815 58.943871 -849.19177 0
122.3914 58.96674 -849.5213 0
122.9868 58.99852 -849.979 0
123.5978 59.037479 -850.54041 0
124.1989 59.071381 -851.02869 0
124.7706 59.091091 -851.31268 0
125.3199 59.100071 -851.44202 0
125.865 59.106972 -851.5415 0
126.4211 59.118969 -851.71442 0
126.9845 59.13427 -851.93481 0
127.5595 59.15485 -852.23132 0
128.1436 59.179428 -852.58539 0
128.737 59.208099 -852.99847 0
129.3373 59.239681 -853.45343 0
129.93201 59.26844 -853.8678 0
130.50861 59.288761 -854.16058 0
131.06351 59.299099 -854.30939 0
131.6062 59.303871 -854.37817 0
132.14771 59.308029 -854.43817 0
132.6935 59.31411 -854.5257 0
133.24561 59.322941 -854.65302 0
133.8037 59.334339 -854.81708 0
134.3672 59.34808 -855.01508 0
134.93381 59.363029 -855.23041 0
135.5027 59.378868 -855.45868 0
136.0733 59.39537 -855.69647 0
136.6696 59.422859 -856.09241 0
137.22951 59.434422 -856.25897 0
137.8217 59.459789 -856.62451 0
138.41969 59.48748 -857.02338 0
139.0139 59.51329 -857.39532 0
139.6006 59.53574 -857.71881 0
140.1851 59.557098 -858.02643 0
140.7724 59.57946 -858.34857 0
141.35609 59.600121 -858.64618 0
141.92799 59.6157 -858.87073 0
142.49049 59.627232 -859.03668 0
143.04671 59.636028 -859.16351 0
143.5934 59.64082 -859.23248 0
144.1264 59.6399 -859.21918 0
144.64819 59.634361 -859.13953 0
145.16789 59.627998 -859.04791 0
145.6976 59.62579 -859.01599 0
146.24699 59.63163 -859.1001 0
146.8183 59.646339 -859.31207 0
147.41589 59.67157 -859.6756 0
148.0506 59.711571 -860.25177 0
148.7213 59.765789 -861.0329 0
149.40311 59.824032 -861.87201 0
150.03011 59.859982 -862.39001 0
150.6424 59.889839 -862.82013 0
151.239 59.91328 -863.1579 0
151.82809 59.93359 -863.45038 0
154.8226 60.051991 -865.15631 0
155.4256 60.07679 -865.51349 0
156.0215 60.098629 -865.82819 0
156.60069 60.11396 -866.04901 0
157.149 60.11734 -866.09772 0
157.66859 60.10976 -865.98853 0
158.17931 60.098839 -865.83118 0
158.702 60.09256 -865.74072 0
159.2486 60.09531 -865.78027 0
159.81551 60.105701 -865.92999 0
160.3947 60.120609 -866.14478 0
160.9855 60.139771 -866.42078 0
161.5872 60.162868 -866.75372 0
162.1956 60.18829 -867.11981 0
162.8075 60.21484 -867.50232 0
163.4321 60.245892 -867.94971 0
164.0766 60.284039 -868.49933 0
165.4062 60.374439 -869.80157 0
166.01981 60.400551 -870.17792 0
166.6366 60.427662 -870.56842 0
167.15289 60.418259 -870.43292 0
167.71471 60.425331 -870.53491 0
168.3075 60.443481 -870.79633 0
168.9124 60.465839 -871.11841 0
169.52139 60.489529 -871.45978 0
170.13271 60.513889 -871.81073 0
170.73849 60.53616 -872.13147 0
171.35181 60.560909 -872.4881 0
171.9787 60.59029 -872.91138 0
172.60249 60.618431 -873.31677 0
173.2641 60.659599 -873.90991 0
179.1788 61.005322 -878.89063 0
179.81219 61.034519 -879.31122 0
180.47701 61.07412 -879.88177 0
82.791237 57.760071 -839.67212 0
83.291977 57.744621 -839.44757 0
83.793709 57.730042 -839.2356 0
84.315453 57.72934 -839.22552 0
84.844093 57.733341 -839.28363 0
85.375008 57.738838 -839.36359 0
85.907204 57.745129 -839.45502 0
86.440422 57.752029 -839.5553 0
86.974953 57.75972 -839.66711 0
87.510643 57.768082 -839.78857 0
88.046753 57.776611 -839.91272 0
88.583344 57.785358 -840.03979 0
89.121071 57.79475 -840.17627 0
89.65918 57.80426 -840.31458 0
90.196167 57.81295 -840.44098 0
90.731918 57.820751 -840.55432 0
91.267708 57.828491 -840.66681 0
91.805023 57.837101 -840.79187 0
92.342461 57.845692 -840.91681 0
92.877983 57.852989 -841.02289 0
93.413269 57.860062 -841.12567 0
93.953529 57.87011 -841.27191 0
94.504021 57.88633 -841.50763 0
95.045609 57.896931 -841.66168 0
95.615379 57.9245 -842.0625 0
96.156082 57.93425 -842.20422 0
96.681618 57.934799 -842.21228 0
97.196121 57.92878 -842.12482 0
97.706284 57.920238 -842.00061 0
98.217819 57.912609 -841.88971 0
98.735168 57.90847 -841.82953 0
99.259972 57.908718 -841.83313 0
99.791222 57.912708 -841.89111 0
100.3272 57.919411 -841.98853 0
100.867 57.928188 -842.11621 0
101.4087 57.938 -842.25879 0
101.9515 57.948311 -842.40881 0
102.4963 57.95966 -842.57373 0
103.0513 57.97662 -842.82019 0
103.5945 57.98679 -842.96808 0
104.1499 58.0037 -843.21393 0
104.7117 58.023979 -843.50873 0
105.2796 58.047359 -843.84857 0
105.8504 58.07214 -844.2088 0
106.4053 58.08799 -844.43927 0
106.9779 58.113312 -844.80731 0
107.5205 58.1222 -844.93652 0
108.0505 58.124142 -844.96478 0
108.5758 58.123638 -844.95752 0
109.1032 58.12418 -844.96527 0
109.6345 58.12682 -845.00372 0
110.169 58.131111 -845.06622 0
110.707 58.137218 -845.15479 0
111.2509 58.146339 -845.28748 0
111.8033 58.159809 -845.48328 0
112.367 58.179001 -845.76233 0
112.9441 58.204899 -846.13867 0
113.5328 58.236511 -846.59833 0
114.1299 58.272148 -847.11652 0
114.6966 58.291981 -847.40472 0
115.3184 58.33952 -848.09583 0
115.8874 58.360001 -848.39349 0
116.4357 58.369942 -848.53802 0
116.9666 58.37114 -848.55542 0
117.4864 58.366772 -848.49188 0
118.0025 58.360641 -848.40277 0
118.5219 58.356178 -848.33801 0
119.0498 58.355911 -848.33398 0
119.5859 58.35965 -848.38843 0
120.1273 58.365921 -848.47949 0
120.674 58.374729 -848.60773 0
121.2285 58.387241 -848.78943 0
121.7915 58.403671 -849.02832 0
122.3648 58.424858 -849.33643 0
122.9553 58.45409 -849.76123 0
123.5664 58.49279 -850.32391 0
124.1793 58.532051 -850.89471 0
125.3318 58.57526 -851.52271 0
125.8862 58.586391 -851.68457 0
126.4429 58.59856 -851.86151 0
127.0056 58.613369 -852.07672 0
127.5741 58.630711 -852.32892 0
128.1506 58.651562 -852.63202 0
128.7356 58.676128 -852.9892 0
129.3262 58.70306 -853.38062 0
129.91229 58.727692 -853.73859 0
130.48151 58.74453 -853.98352 0
131.0291 58.751541 -854.08539 0
131.563 58.752411 -854.09808 0
132.09331 58.75164 -854.08691 0
132.6266 58.75219 -854.09479 0
133.16769 58.756229 -854.1535 0
133.7193 58.76482 -854.27838 0
134.2809 58.777721 -854.466 0
134.8465 58.79224 -854.67712 0
135.412 58.806641 -854.88641 0
135.97861 58.821388 -855.10083 0
136.5495 58.837849 -855.34009 0
137.1299 58.858311 -855.63757 0
137.7258 58.885201 -856.0285 0
138.338 58.918831 -856.51727 0
138.9516 58.95282 -857.01147 0
139.5536 58.981628 -857.4303 0
140.1442 59.005428 -857.77631 0
140.7326 59.028091 -858.10571 0
141.3192 59.049858 -858.42212 0
141.89819 59.06831 -858.69043 0
142.46919 59.08329 -858.90808 0
143.0323 59.094879 -859.07672 0
143.58189 59.100861 -859.16351 0
144.1138 59.099522 -859.14398 0
144.6306 59.091999 -859.03479 0
145.1423 59.082512 -858.89679 0
145.6635 59.076908 -858.81531 0
146.2061 59.07996 -858.8598 0
146.7724 59.092602 -859.04352 0
147.3647 59.11552 -859.37671 0
147.9906 59.151749 -859.90338 0
148.65359 59.202469 -860.64063 0
149.3261 59.256599 -861.42761 0
149.97639 59.30159 -862.08148 0
150.60049 59.335892 -862.5802 0
151.20399 59.36187 -862.95789 0
151.7926 59.381882 -863.24878 0
